45711.84 382755.69 0.92 0 0 0
40445.93 383371.50 1.13 0 0 0
40959.22 383387.74 -0.24 0 0 0
40267.73 383851.64 0.80 0 0 0
40779.80 383867.97 0.88 0 0 0
46483.92 365000.08 5.25 0 0 0
46085.61 365499.87 1.73 0 0 0
46995.96 365000.83 4.39 0 0 0
46625.94 365491.99 3.42 0 0 0
46333.64 365947.89 1.51 0 0 0
46859.50 365947.65 3.57 0 0 0
46511.83 366427.96 1.78 0 0 0
46499.95 366987.44 5.40 0 0 0
46995.25 366597.77 2.80 0 0 0
46357.84 369000.87 1.02 0 0 0
46490.67 369495.90 2.37 0 0 0
46869.59 369000.14 18.65 0 0 0
46999.86 369549.59 4.22 0 0 0
46580.75 369999.97 3.74 0 0 0
46473.98 367499.85 1.81 0 0 0
46945.24 367240.23 2.24 0 0 0
46924.41 367752.67 2.23 0 0 0
46435.82 368035.81 24.66 0 0 0
46651.69 368499.67 2.27 0 0 0
46450.86 370498.66 2.34 0 0 0
46995.64 370300.92 4.91 0 0 0
46555.43 370999.91 3.09 0 0 0
46403.21 371488.83 1.43 0 0 0
46999.86 371254.57 2.21 0 0 0
46432.72 371999.95 9.52 0 0 0
46881.06 371752.77 1.70 0 0 0
46360.84 373000.44 4.61 0 0 0
46872.89 373000.56 3.92 0 0 0
46532.91 373482.88 -0.54 0 0 0
41471.88 383387.88 0.87 0 0 0
41953.87 383214.72 0.88 0 0 0
41291.91 383867.24 1.21 0 0 0
41859.95 383722.88 0.54 0 0 0
46441.92 376000.52 -0.11 0 0 0
46227.82 376465.70 0.08 0 0 0
46953.92 376001.27 1.01 0 0 0
46739.89 376467.33 0.67 0 0 0
46205.73 376977.72 -1.45 0 0 0
46371.32 375032.83 -1.42 0 0 0
46883.81 375024.80 -1.48 0 0 0
46571.62 375505.14 -1.46 0 0 0
46543.89 372499.84 4.36 0 0 0
46995.99 372251.79 1.76 0 0 0
46366.15 378311.54 -1.67 0 0 0
46879.12 378313.79 -1.72 0 0 0
46484.20 378809.99 2.56 0 0 0
46998.94 378811.71 1.43 0 0 0
46390.76 382000.02 0.84 0 0 0
46902.99 382000.91 0.99 0 0 0
46501.78 382499.87 0.54 0 0 0
46198.91 382913.62 0.72 0 0 0
46999.95 382618.86 1.08 0 0 0
46413.59 380000.56 0.50 0 0 0
46243.83 380489.63 0.80 0 0 0
46925.90 380000.63 0.25 0 0 0
46755.85 380484.09 0.50 0 0 0
46321.56 380995.87 1.02 0 0 0
46883.79 380979.98 0.97 0 0 0
46476.91 381483.96 1.11 0 0 0
46994.61 381479.88 0.94 0 0 0
46475.15 379321.93 0.12 0 0 0
46987.28 379323.85 1.64 0 0 0
47499.98 365090.90 3.94 0 0 0
47142.53 365491.61 4.98 0 0 0
47999.88 365201.87 2.89 0 0 0
47474.45 365881.52 2.20 0 0 0
47957.73 365712.42 1.65 0 0 0
47464.76 366393.52 2.38 0 0 0
47948.43 366224.91 1.27 0 0 0
47371.91 366944.77 1.75 0 0 0
47851.75 366728.74 6.73 0 0 0
47114.93 368227.95 1.49 0 0 0
47573.90 368000.00 1.13 0 0 0
47684.89 368499.85 1.03 0 0 0
47372.71 368905.74 3.75 0 0 0
47883.52 368971.99 0.99 0 0 0
47492.26 369403.79 0.25 0 0 0
47999.99 369470.81 1.58 0 0 0
47369.78 369903.75 0.16 0 0 0
47877.70 369968.45 1.53 0 0 0
47409.85 367455.66 2.34 0 0 0
47873.77 367239.92 27.69 0 0 0
42384.50 383491.86 -0.09 0 0 0
42877.87 383354.85 0.13 0 0 0
42748.71 383851.86 0.70 0 0 0
47499.82 370398.92 6.97 0 0 0
47361.21 370891.78 2.17 0 0 0
47999.96 370508.48 2.46 0 0 0
47494.83 371387.96 7.57 0 0 0
47861.29 371001.97 5.42 0 0 0
47995.26 371495.98 20.21 0 0 0
47371.75 371899.77 2.93 0 0 0
47875.40 371993.51 1.53 0 0 0
47384.89 373000.45 -0.60 0 0 0
47896.90 373000.98 -1.03 0 0 0
47063.29 373475.84 -1.65 0 0 0
47395.95 375015.50 -1.39 0 0 0
47083.71 375496.29 -0.05 0 0 0
47908.36 375008.21 -1.48 0 0 0
47595.81 375487.66 0.56 0 0 0
47466.04 375982.96 -0.30 0 0 0
47999.93 375802.53 -0.39 0 0 0
47498.84 372395.80 8.68 0 0 0
47849.67 376322.99 -1.51 0 0 0
47240.97 376572.60 -1.23 0 0 0
47384.01 378398.92 -1.24 0 0 0
47879.93 378526.57 -0.63 0 0 0
47499.98 378917.13 1.82 0 0 0
47487.99 379431.22 1.47 0 0 0
47999.93 379027.98 1.74 0 0 0
47434.59 379940.61 0.47 0 0 0
47988.69 379539.94 0.50 0 0 0
47264.80 380423.90 0.98 0 0 0
47935.82 380049.48 0.60 0 0 0
47489.79 380883.88 2.09 0 0 0
47885.83 380559.23 1.42 0 0 0
47499.73 381395.93 0.90 0 0 0
47947.79 381112.77 1.08 0 0 0
47404.96 381899.73 1.19 0 0 0
47957.84 381624.86 0.85 0 0 0
47494.85 382403.94 0.54 0 0 0
47931.72 382136.93 0.98 0 0 0
47371.97 382970.91 0.37 0 0 0
47883.86 382736.94 0.83 0 0 0
43496.29 383499.98 0.99 0 0 0
43949.97 383261.41 1.48 0 0 0
43883.59 383834.98 1.01 0 0 0
48470.75 365000.53 1.67 0 0 0
48982.80 365000.28 1.64 0 0 0
48583.94 365499.94 1.32 0 0 0
48396.87 365976.81 0.72 0 0 0
48999.84 365798.95 1.21 0 0 0
48386.84 366489.59 1.74 0 0 0
48859.05 366291.22 0.72 0 0 0
48324.29 366997.79 1.46 0 0 0
48796.82 366799.83 1.09 0 0 0
48385.00 367496.48 101.70 0 0 0
48859.87 367307.94 0.99 0 0 0
48074.15 367890.78 0.88 0 0 0
48755.88 367835.27 0.96 0 0 0
48394.98 369000.61 1.36 0 0 0
48907.50 369000.15 1.09 0 0 0
48511.41 369499.35 1.53 0 0 0
48389.15 369996.73 1.96 0 0 0
48999.91 369652.94 1.59 0 0 0
48445.62 368243.46 1.13 0 0 0
48953.91 368307.63 1.01 0 0 0
48875.87 370155.70 1.68 0 0 0
48499.71 370619.84 1.49 0 0 0
48999.92 370729.65 1.04 0 0 0
48387.86 372000.27 0.78 0 0 0
48002.45 372489.64 12.24 0 0 0
48899.99 372000.51 1.46 0 0 0
48514.36 372496.72 2.21 0 0 0
48409.25 372997.90 -1.27 0 0 0
48999.99 372659.65 -0.39 0 0 0
48361.35 371112.85 1.01 0 0 0
48861.86 371222.69 1.23 0 0 0
48390.78 378561.88 0.17 0 0 0
48898.52 378492.57 -1.40 0 0 0
48659.84 378997.61 0.25 0 0 0
48301.16 375336.99 -1.73 0 0 0
48883.92 373190.55 -1.01 0 0 0
48445.74 380000.00 -0.34 0 0 0
48957.91 380000.80 1.21 0 0 0
48556.29 380499.97 0.41 0 0 0
48999.95 380755.79 0.82 0 0 0
48425.47 382000.26 0.11 0 0 0
48937.87 382000.14 0.75 0 0 0
48537.59 382499.94 1.16 0 0 0
48338.85 382971.92 0.36 0 0 0
48999.64 382720.70 0.88 0 0 0
48447.84 381000.38 1.04 0 0 0
48560.99 381499.96 0.52 0 0 0
48497.94 379483.82 1.20 0 0 0
48999.79 379380.56 -1.01 0 0 0
44419.93 383464.71 0.04 0 0 0
44919.58 383350.78 0.48 0 0 0
44755.79 383851.96 1.41 0 0 0
49494.95 365000.39 3.27 0 0 0
49999.98 365084.85 -0.72 0 0 0
49607.14 365499.96 0.27 0 0 0
49473.66 365994.95 1.53 0 0 0
49979.81 365851.72 0.20 0 0 0
49331.88 366487.77 1.00 0 0 0
49845.93 366346.93 1.13 0 0 0
49269.84 366996.51 1.14 0 0 0
49761.00 366851.87 1.20 0 0 0
49363.53 367499.96 0.75 0 0 0
49865.92 367353.09 -1.33 0 0 0
49491.99 367995.83 -1.06 0 0 0
49983.99 367851.69 1.36 0 0 0
49581.42 368499.97 2.77 0 0 0
49419.42 368985.97 6.26 0 0 0
49995.91 368800.92 0.45 0 0 0
49492.96 369492.69 -1.45 0 0 0
49972.30 369312.72 -1.48 0 0 0
49383.78 369992.96 -1.42 0 0 0
49883.89 369823.52 1.14 0 0 0
49457.67 370499.90 1.14 0 0 0
49944.45 370331.96 1.16 0 0 0
49585.47 370995.73 1.31 0 0 0
49307.87 371474.44 1.00 0 0 0
49995.92 371301.98 1.17 0 0 0
49411.95 371975.96 1.31 0 0 0
49894.76 371803.98 1.23 0 0 0
49480.81 372483.40 1.21 0 0 0
49985.66 372307.89 0.95 0 0 0
49393.39 372987.89 0.38 0 0 0
49875.51 372809.70 1.19 0 0 0
49297.79 373491.99 0.53 0 0 0
49787.65 373314.85 0.71 0 0 0
49362.13 373999.96 -1.41 0 0 0
49871.73 373819.93 0.26 0 0 0
49903.24 374331.65 -1.44 0 0 0
49392.98 378625.63 -1.45 0 0 0
49904.74 378652.91 -1.12 0 0 0
49154.70 381243.95 0.76 0 0 0
49605.94 381000.72 0.32 0 0 0
49720.35 381499.81 0.15 0 0 0
49445.39 381931.93 0.45 0 0 0
49971.99 381945.94 0.47 0 0 0
49449.89 379134.76 1.03 0 0 0
49961.32 379161.84 1.50 0 0 0
49435.97 379648.89 -1.05 0 0 0
49951.19 379673.75 -1.52 0 0 0
49443.78 380162.34 1.43 0 0 0
49955.98 380185.98 1.03 0 0 0
49430.69 382443.97 1.21 0 0 0
49942.52 382457.54 0.41 0 0 0
49435.92 382989.82 0.91 0 0 0
49947.94 382969.84 -0.11 0 0 0
45434.98 383419.93 1.02 0 0 0
45943.93 383357.86 1.04 0 0 0
45265.85 383903.53 0.93 0 0 0
45774.63 383841.47 1.12 0 0 0
50499.96 365202.96 -1.16 0 0 0
50975.93 365013.90 -0.67 0 0 0
50473.91 365714.56 1.07 0 0 0
50949.94 365525.53 1.69 0 0 0
50250.93 367000.96 0.77 0 0 0
50365.96 367499.93 10.05 0 0 0
50755.95 367085.60 1.46 0 0 0
50492.69 367995.94 1.20 0 0 0
50873.96 367583.82 1.81 0 0 0
50343.76 366211.92 1.31 0 0 0
50874.96 366032.99 1.04 0 0 0
50745.17 366529.85 1.21 0 0 0
50467.69 369000.63 -0.52 0 0 0
50979.78 369000.16 0.89 0 0 0
50581.56 369499.86 0.86 0 0 0
50371.91 369978.38 0.82 0 0 0
50995.73 369800.89 0.48 0 0 0
50409.60 371000.20 1.20 0 0 0
50921.64 371000.68 1.17 0 0 0
50521.85 371499.91 1.35 0 0 0
50390.96 371994.97 2.75 0 0 0
50999.94 371683.82 1.39 0 0 0
50997.70 368080.66 0.42 0 0 0
50583.23 368499.94 1.22 0 0 0
46482.88 383339.74 1.03 0 0 0
46994.49 383316.86 1.01 0 0 0
46285.95 383812.55 1.21 0 0 0
46797.98 383789.99 3.50 0 0 0
50432.60 370486.93 9.26 0 0 0
50911.55 370305.93 1.00 0 0 0
50350.70 373000.45 1.22 0 0 0
50463.72 373499.85 2.03 0 0 0
50862.90 373000.63 4.60 0 0 0
50976.97 373499.91 0.99 0 0 0
50351.97 373999.94 1.23 0 0 0
50864.67 373999.99 1.40 0 0 0
50476.83 372499.86 1.33 0 0 0
50877.53 372181.08 1.28 0 0 0
50433.22 380000.51 0.52 0 0 0
50945.77 380000.72 0.04 0 0 0
50546.35 380499.88 0.29 0 0 0
50034.61 380691.98 -0.20 0 0 0
50999.79 380738.01 -0.08 0 0 0
50370.65 374540.65 -1.41 0 0 0
50883.01 374512.55 -1.11 0 0 0
50447.87 379000.04 -1.38 0 0 0
50959.99 379000.68 -1.38 0 0 0
50558.87 379499.99 1.90 0 0 0
50189.93 381179.87 -0.02 0 0 0
50701.81 381154.37 -0.02 0 0 0
50464.99 381611.84 -0.01 0 0 0
50977.96 381585.83 -0.13 0 0 0
50435.80 382162.84 0.02 0 0 0
50943.88 382096.79 -0.19 0 0 0
50403.99 382679.69 -0.58 0 0 0
50911.14 382607.80 -0.35 0 0 0
51385.98 366000.57 1.23 0 0 0
51256.37 366495.94 0.96 0 0 0
51898.89 366000.58 1.77 0 0 0
51768.57 366495.83 1.63 0 0 0
51366.52 366995.98 1.32 0 0 0
51878.55 366995.88 1.01 0 0 0
51487.89 365000.58 2.80 0 0 0
51999.95 365000.09 1.77 0 0 0
51600.82 365499.99 7.04 0 0 0
51457.97 367499.77 1.18 0 0 0
51970.53 367499.85 1.14 0 0 0
51584.98 367995.94 0.18 0 0 0
51491.93 369000.26 0.61 0 0 0
51999.96 369063.98 0.81 0 0 0
51603.51 369499.99 0.93 0 0 0
51467.75 369999.91 -0.11 0 0 0
51979.92 369847.81 0.59 0 0 0
51371.96 372035.96 0.73 0 0 0
51882.86 372000.34 0.87 0 0 0
51588.80 372499.92 0.93 0 0 0
51373.72 372964.69 1.47 0 0 0
51995.48 372810.98 0.84 0 0 0
51577.87 370499.98 -1.15 0 0 0
51433.87 370991.42 1.12 0 0 0
51979.52 370817.91 0.69 0 0 0
51487.93 373463.83 1.37 0 0 0
51980.82 373322.95 1.26 0 0 0
51375.45 373963.65 1.16 0 0 0
51867.66 373822.47 1.30 0 0 0
51495.72 371499.79 1.13 0 0 0
51979.16 371329.94 0.89 0 0 0
51393.80 374475.76 1.36 0 0 0
51885.98 374334.27 1.35 0 0 0
51140.59 374963.05 -1.42 0 0 0
51755.98 374837.85 1.41 0 0 0
51291.92 368499.76 0.03 0 0 0
51995.66 368301.85 0.90 0 0 0
51992.83 375291.86 1.60 0 0 0
51073.71 379499.95 2.89 0 0 0
51582.98 379444.05 -1.37 0 0 0
51454.36 379939.83 3.71 0 0 0
51423.87 380451.00 -0.17 0 0 0
51932.49 380390.59 -1.41 0 0 0
51459.77 380963.02 0.35 0 0 0
51968.84 380901.51 -0.28 0 0 0
47704.68 364621.47 2.23 0 0 0
51477.90 381474.71 0.12 0 0 0
51986.67 381413.36 -0.12 0 0 0
51443.78 381985.73 2.36 0 0 0
51952.60 381924.46 0.00 0 0 0
51411.39 382496.82 -0.42 0 0 0
51919.84 382435.79 -0.67 0 0 0
51242.82 382997.86 0.61 0 0 0
51748.94 382918.92 -0.25 0 0 0
47495.69 383467.77 0.82 0 0 0
47994.25 383350.87 1.21 0 0 0
47747.70 383913.46 0.84 0 0 0
48494.88 383459.86 -0.04 0 0 0
48953.25 383230.74 1.13 0 0 0
48259.72 383914.75 0.60 0 0 0
48915.91 383751.82 0.58 0 0 0
49389.90 383499.81 1.30 0 0 0
49901.70 383479.97 10.98 0 0 0
50217.95 364621.31 1.00 0 0 0
50403.54 383203.77 0.85 0 0 0
50888.76 383367.79 -0.18 0 0 0
50355.94 383716.97 0.59 0 0 0
50842.37 383877.70 1.08 0 0 0
51403.88 383483.87 -0.09 0 0 0
51987.64 383371.95 -0.54 0 0 0
51723.90 383883.89 -0.38 0 0 0
32714.37 384966.05 1.89 0 0 0
32713.76 389000.38 -1.62 0 0 0
32826.47 389499.85 0.55 0 0 0
32713.81 389999.94 2.35 0 0 0
32713.87 392000.24 0.03 0 0 0
32826.53 392499.96 0.28 0 0 0
32714.20 392999.82 0.11 0 0 0
32713.89 386000.68 1.39 0 0 0
32827.98 386499.84 4.92 0 0 0
32713.90 386999.28 -0.34 0 0 0
33211.84 385087.70 2.07 0 0 0
33691.91 385266.82 2.33 0 0 0
33000.05 385553.92 0.35 0 0 0
33479.76 385732.96 0.67 0 0 0
33994.73 385679.66 -1.89 0 0 0
33225.08 386176.86 17.06 0 0 0
33737.22 386175.95 -0.01 0 0 0
33467.64 386627.89 -0.17 0 0 0
33979.88 386627.63 6.88 0 0 0
33219.89 387077.79 -0.90 0 0 0
33732.19 387075.80 -0.40 0 0 0
33000.19 387540.36 0.89 0 0 0
33499.92 387652.76 -1.07 0 0 0
33993.91 387515.87 -0.28 0 0 0
33019.98 388051.98 -0.85 0 0 0
33499.95 388230.64 0.40 0 0 0
33969.94 388027.52 -0.20 0 0 0
33000.60 388563.73 -0.69 0 0 0
33479.94 388743.90 -0.70 0 0 0
33949.79 388539.82 -0.36 0 0 0
33238.69 389195.73 2.89 0 0 0
33754.83 389175.89 -0.63 0 0 0
33365.57 389691.79 -0.25 0 0 0
33995.73 389627.74 -0.56 0 0 0
33194.93 390174.96 11.40 0 0 0
33715.65 390065.55 0.46 0 0 0
33987.11 390498.90 29.24 0 0 0
33000.64 390648.81 7.78 0 0 0
33499.95 390761.90 0.76 0 0 0
33000.30 391160.86 3.20 0 0 0
33499.95 391273.92 0.23 0 0 0
33947.72 391010.73 0.18 0 0 0
33115.59 391659.95 0.34 0 0 0
33499.98 391998.96 0.42 0 0 0
33883.99 391612.99 4.12 0 0 0
33338.39 392485.02 -0.28 0 0 0
33999.96 392111.82 0.69 0 0 0
33226.97 392984.96 -0.15 0 0 0
33834.62 392611.76 -2.17 0 0 0
33000.31 393444.49 -0.87 0 0 0
33723.64 393111.64 0.22 0 0 0
33496.73 393570.97 -0.91 0 0 0
33093.84 393947.90 -0.51 0 0 0
33999.75 393666.50 0.34 0 0 0
33000.67 394451.47 -0.90 0 0 0
33499.66 394260.28 -1.01 0 0 0
33999.97 394369.98 -0.81 0 0 0
33000.10 394963.55 -1.02 0 0 0
33474.87 394771.71 -1.07 0 0 0
33975.21 394881.67 0.14 0 0 0
33000.34 395475.98 -0.94 0 0 0
33475.55 395283.88 -0.60 0 0 0
33975.95 395393.98 -0.57 0 0 0
33000.00 395988.85 -0.91 0 0 0
33474.42 395795.97 -0.49 0 0 0
33975.38 395905.99 -0.71 0 0 0
33031.35 396499.92 -0.55 0 0 0
33505.88 396307.37 -1.03 0 0 0
33999.79 396442.45 -0.07 0 0 0
33141.97 396999.92 0.24 0 0 0
33616.66 396807.45 -0.07 0 0 0
33000.01 397492.15 0.15 0 0 0
33499.95 397366.25 0.13 0 0 0
33999.94 397147.35 -0.01 0 0 0
33065.59 397999.99 0.54 0 0 0
33883.65 397705.52 0.44 0 0 0
33177.76 398499.95 0.70 0 0 0
33566.85 398107.84 0.14 0 0 0
33995.82 398387.97 6.05 0 0 0
33000.79 398980.47 0.62 0 0 0
33627.88 398744.21 0.53 0 0 0
33000.06 399492.74 1.05 0 0 0
33449.75 399226.69 0.86 0 0 0
33070.42 399999.95 -0.57 0 0 0
33000.16 400507.80 0.44 0 0 0
33157.88 400994.91 -0.65 0 0 0
33360.90 401464.94 2.09 0 0 0
33858.38 401326.55 -0.57 0 0 0
33723.99 401825.93 -1.38 0 0 0
34507.90 385667.12 -1.86 0 0 0
34999.72 385809.79 -1.86 0 0 0
34249.08 386123.99 2.69 0 0 0
34743.92 386255.67 5.02 0 0 0
34487.21 386698.91 1.48 0 0 0
34998.36 386728.83 2.14 0 0 0
34481.51 388000.18 10.93 0 0 0
34993.71 388000.10 1.25 0 0 0
34593.18 388499.86 1.84 0 0 0
34242.83 388959.89 -0.03 0 0 0
34754.35 388985.85 0.99 0 0 0
34399.97 387203.77 1.13 0 0 0
34911.50 387233.40 5.21 0 0 0
34467.73 389419.91 1.41 0 0 0
34998.89 389435.84 0.88 0 0 0
34371.82 389975.48 0.69 0 0 0
34882.82 389934.79 2.40 0 0 0
34498.49 390471.73 1.50 0 0 0
34459.43 390982.50 0.03 0 0 0
34999.98 390575.60 1.01 0 0 0
34380.81 391488.78 0.57 0 0 0
34960.82 391085.98 21.55 0 0 0
34496.98 391987.48 -0.56 0 0 0
34882.37 391591.86 0.51 0 0 0
34339.75 392494.98 -0.94 0 0 0
34998.89 392090.73 -0.72 0 0 0
34221.83 392993.45 -0.91 0 0 0
34844.73 392579.57 -0.24 0 0 0
34479.57 393435.92 -0.94 0 0 0
34858.56 393091.66 -0.63 0 0 0
34427.76 393947.53 -0.86 0 0 0
34968.64 393591.70 0.41 0 0 0
34499.84 394480.87 -0.90 0 0 0
34915.94 394102.72 -1.02 0 0 0
34475.27 394992.36 0.08 0 0 0
34995.71 394608.58 -0.34 0 0 0
34971.12 395120.43 -0.92 0 0 0
34542.11 395499.98 0.28 0 0 0
34995.45 395737.96 1.97 0 0 0
34477.14 396008.97 -0.04 0 0 0
34622.69 396499.85 0.49 0 0 0
34487.53 396992.94 28.81 0 0 0
34995.79 396850.69 1.08 0 0 0
34370.94 397499.71 20.90 0 0 0
34858.59 397344.92 0.95 0 0 0
34499.89 397994.87 0.75 0 0 0
34995.73 397839.47 -0.68 0 0 0
34414.59 400079.04 -0.76 0 0 0
34920.72 400000.92 5.18 0 0 0
34734.88 400478.45 11.28 0 0 0
34222.95 400596.79 -0.76 0 0 0
34538.92 400999.90 1.30 0 0 0
34720.95 399336.70 -0.73 0 0 0
34348.79 401475.33 1.65 0 0 0
34999.72 401223.59 1.39 0 0 0
34808.99 401699.98 4.81 0 0 0
35480.48 385631.83 -2.01 0 0 0
35985.64 385529.98 -1.82 0 0 0
35371.96 386162.12 2.64 0 0 0
35879.00 386038.22 2.22 0 0 0
35499.94 386832.34 0.76 0 0 0
35938.98 386546.77 2.87 0 0 0
35413.21 387336.97 5.18 0 0 0
35947.44 387081.26 2.99 0 0 0
35481.70 387844.95 5.93 0 0 0
35927.52 387592.91 5.32 0 0 0
35267.88 389000.00 0.02 0 0 0
35755.94 389154.92 0.97 0 0 0
35487.17 389590.93 0.55 0 0 0
35999.99 389605.15 0.88 0 0 0
35105.70 388499.96 1.09 0 0 0
35923.28 388104.90 5.53 0 0 0
35617.74 388515.95 1.12 0 0 0
35370.99 390089.86 21.49 0 0 0
35882.66 390103.91 0.93 0 0 0
35499.82 390686.65 0.80 0 0 0
35999.82 390796.89 10.44 0 0 0
35459.99 391198.72 1.34 0 0 0
35960.38 391307.67 2.34 0 0 0
35381.90 391704.86 -0.16 0 0 0
35882.77 391813.82 0.13 0 0 0
35498.98 392203.78 0.37 0 0 0
35999.48 392312.90 8.16 0 0 0
35344.29 392691.92 -0.69 0 0 0
35755.92 392996.40 -0.34 0 0 0
35444.84 393403.45 -0.47 0 0 0
35947.91 393499.88 -0.03 0 0 0
35391.57 393912.87 -0.89 0 0 0
35468.90 395000.12 -0.30 0 0 0
35980.98 395000.75 0.17 0 0 0
35580.55 395499.89 0.20 0 0 0
35435.95 395998.99 0.24 0 0 0
35995.86 395799.51 0.38 0 0 0
35471.59 394418.90 -0.70 0 0 0
35883.97 394053.50 -0.33 0 0 0
35542.93 396499.82 1.15 0 0 0
35995.02 396742.16 -0.71 0 0 0
35482.85 397008.45 6.51 0 0 0
35997.78 397858.08 -0.60 0 0 0
35562.84 398155.96 -0.72 0 0 0
35957.46 398483.25 -0.70 0 0 0
35312.98 398979.54 -0.76 0 0 0
35824.96 398979.49 4.04 0 0 0
35211.98 399481.87 1.11 0 0 0
35723.99 399481.58 1.76 0 0 0
35432.82 399943.92 3.59 0 0 0
35944.86 399943.76 1.00 0 0 0
35243.76 400420.40 8.96 0 0 0
35755.79 400420.21 1.04 0 0 0
35461.93 400883.83 2.32 0 0 0
35975.62 400882.75 1.18 0 0 0
35481.91 401395.73 3.61 0 0 0
35993.94 401394.99 1.71 0 0 0
35243.85 401970.98 1.31 0 0 0
35738.69 401839.62 6.73 0 0 0
35946.02 402307.95 -1.06 0 0 0
36495.77 385484.32 -1.95 0 0 0
36998.25 385149.75 0.73 0 0 0
36388.25 385984.88 8.18 0 0 0
36975.98 385661.81 5.21 0 0 0
36450.82 386493.55 2.34 0 0 0
36867.97 386163.99 12.52 0 0 0
36931.95 386671.99 4.88 0 0 0
36526.75 386999.96 2.97 0 0 0
36979.82 387238.88 8.33 0 0 0
36431.93 387503.73 4.93 0 0 0
36883.95 387744.66 4.79 0 0 0
36427.85 388015.99 5.38 0 0 0
36251.80 388497.91 6.77 0 0 0
36997.96 388243.98 6.05 0 0 0
36370.37 388995.96 1.08 0 0 0
36799.18 388715.83 1.91 0 0 0
36499.75 389491.95 1.10 0 0 0
36928.71 389211.19 1.36 0 0 0
36381.94 389990.61 6.59 0 0 0
36947.87 389740.57 1.13 0 0 0
36434.75 390499.86 0.67 0 0 0
36880.83 390248.18 1.15 0 0 0
36947.34 390755.97 0.84 0 0 0
36465.22 391010.99 6.01 0 0 0
36751.50 391435.45 0.31 0 0 0
36394.73 391802.96 1.34 0 0 0
36998.81 391883.77 0.77 0 0 0
36499.99 392420.51 -0.34 0 0 0
36251.92 392868.60 -0.37 0 0 0
36999.95 392530.94 0.63 0 0 0
36751.94 392978.91 0.11 0 0 0
36448.31 393391.50 0.19 0 0 0
36983.88 393435.41 0.98 0 0 0
36371.94 393897.97 -0.22 0 0 0
36882.91 393937.70 3.66 0 0 0
36243.78 394417.83 -0.39 0 0 0
36755.99 394433.94 1.27 0 0 0
36480.63 394871.93 1.80 0 0 0
36342.96 395365.84 -1.85 0 0 0
36520.12 395877.31 -0.75 0 0 0
36334.08 396357.48 -0.72 0 0 0
36995.86 396067.08 -0.72 0 0 0
36755.89 396647.80 -0.68 0 0 0
36574.97 397127.90 -0.88 0 0 0
36999.23 397414.62 -0.72 0 0 0
36755.99 397957.67 -0.71 0 0 0
36336.83 399000.99 1.14 0 0 0
36451.84 399499.92 1.16 0 0 0
36849.84 399000.53 1.43 0 0 0
36963.88 399499.87 1.15 0 0 0
36561.95 399999.97 0.89 0 0 0
36457.98 398374.15 0.32 0 0 0
36976.85 398419.77 1.00 0 0 0
36267.82 400419.45 1.22 0 0 0
36995.96 400272.47 1.24 0 0 0
36499.75 400875.98 1.08 0 0 0
36999.80 400986.42 1.26 0 0 0
36499.89 401474.88 1.13 0 0 0
36314.98 401952.80 1.58 0 0 0
36999.99 401585.59 1.45 0 0 0
36814.99 402063.38 1.21 0 0 0
36435.83 402457.79 1.83 0 0 0
36937.76 402560.78 4.36 0 0 0
37506.82 384523.62 2.53 0 0 0
37954.47 384130.33 -1.70 0 0 0
37998.98 384664.76 5.07 0 0 0
37497.80 385035.98 5.34 0 0 0
37989.84 385177.71 2.37 0 0 0
37475.86 385547.60 5.24 0 0 0
37967.94 385689.28 5.05 0 0 0
37366.79 386047.86 11.83 0 0 0
37858.92 386190.24 0.64 0 0 0
37431.94 386558.36 -1.96 0 0 0
37959.95 386691.84 19.61 0 0 0
37463.84 387070.34 2.09 0 0 0
37947.82 387237.94 5.21 0 0 0
37367.37 387573.49 4.99 0 0 0
37851.68 387741.64 2.26 0 0 0
37490.87 388104.97 4.82 0 0 0
37986.16 388235.93 4.82 0 0 0
37338.99 388625.85 15.54 0 0 0
37840.75 388727.75 10.26 0 0 0
37371.78 390027.79 0.99 0 0 0
37883.33 390000.42 2.14 0 0 0
37569.96 390499.93 0.64 0 0 0
37403.92 390987.72 0.79 0 0 0
37995.88 390784.70 1.76 0 0 0
37487.49 389115.98 5.55 0 0 0
37995.65 389215.82 5.16 0 0 0
37331.92 391494.85 0.44 0 0 0
37819.93 391286.85 1.13 0 0 0
37499.99 391988.75 0.91 0 0 0
37971.71 391775.96 1.47 0 0 0
37528.96 392499.94 1.36 0 0 0
37995.46 392287.46 0.65 0 0 0
37273.65 392963.68 0.69 0 0 0
37883.51 392869.78 4.43 0 0 0
37498.68 393423.59 1.71 0 0 0
37428.21 394083.73 -0.65 0 0 0
37941.18 394103.60 -0.73 0 0 0
37243.70 394589.94 1.28 0 0 0
37908.59 394617.23 -0.65 0 0 0
37138.84 395091.49 -0.72 0 0 0
37499.66 395455.61 -0.69 0 0 0
37893.61 395128.86 16.88 0 0 0
37498.19 395967.99 -0.45 0 0 0
37979.96 395633.52 7.17 0 0 0
37275.45 396495.87 10.53 0 0 0
37999.96 396252.21 -0.65 0 0 0
37364.63 396999.95 -0.76 0 0 0
37863.42 396746.21 -0.78 0 0 0
37983.67 397243.89 1.13 0 0 0
37506.56 397491.99 0.83 0 0 0
37267.85 397945.18 1.21 0 0 0
37945.93 397754.87 1.18 0 0 0
37495.84 398403.64 1.38 0 0 0
37989.94 398265.20 0.85 0 0 0
37351.25 398895.58 1.35 0 0 0
37851.75 398771.96 8.32 0 0 0
37465.65 399394.68 0.95 0 0 0
37962.73 399271.88 1.06 0 0 0
37336.83 399890.28 0.86 0 0 0
37834.37 399767.86 0.80 0 0 0
37498.82 400375.98 0.96 0 0 0
37996.78 400253.43 0.91 0 0 0
37850.64 400747.96 1.11 0 0 0
37495.32 401116.77 0.89 0 0 0
37992.62 401239.92 0.75 0 0 0
37499.82 401696.62 1.02 0 0 0
37999.85 401806.96 0.72 0 0 0
37314.91 402174.50 1.91 0 0 0
37815.20 402284.88 0.81 0 0 0
37435.80 402680.65 -0.78 0 0 0
37999.56 402762.98 -0.84 0 0 0
38449.92 384000.44 5.92 0 0 0
38961.92 384000.51 2.93 0 0 0
38562.86 384499.88 5.62 0 0 0
38690.02 384995.85 5.21 0 0 0
38427.94 385442.93 4.97 0 0 0
38999.45 385403.77 -1.73 0 0 0
38400.83 385964.30 2.52 0 0 0
38909.77 385907.96 4.95 0 0 0
38424.55 386475.86 5.82 0 0 0
38934.69 386419.99 2.46 0 0 0
38394.95 386987.90 5.27 0 0 0
38903.90 386931.21 5.25 0 0 0
38387.97 387499.89 4.95 0 0 0
38990.94 387435.87 4.97 0 0 0
38498.92 387999.69 -2.04 0 0 0
38997.75 388128.62 4.12 0 0 0
38608.53 388499.87 10.02 0 0 0
38454.75 388988.26 5.34 0 0 0
38995.70 388834.97 5.61 0 0 0
38421.75 389499.86 1.75 0 0 0
38908.79 389339.93 1.90 0 0 0
38531.78 389999.91 1.90 0 0 0
38421.65 390499.96 1.77 0 0 0
38999.95 390207.59 0.85 0 0 0
38883.99 390720.35 0.34 0 0 0
38435.99 391046.68 0.49 0 0 0
38913.52 391231.96 1.34 0 0 0
38435.44 391558.93 0.71 0 0 0
38913.45 391743.99 4.65 0 0 0
38459.49 392070.79 0.42 0 0 0
38738.93 392499.99 1.01 0 0 0
38395.39 392880.61 -0.75 0 0 0
38986.93 392947.97 0.86 0 0 0
38186.64 393350.41 -0.69 0 0 0
38698.56 393371.49 1.32 0 0 0
38371.88 394380.88 -0.70 0 0 0
38866.45 394060.14 -0.71 0 0 0
38347.61 394892.40 1.36 0 0 0
38434.73 395396.94 0.21 0 0 0
38944.88 395349.88 -0.75 0 0 0
38411.60 395908.96 1.35 0 0 0
38921.70 395861.96 1.04 0 0 0
38483.82 396419.85 1.17 0 0 0
38993.82 396369.67 1.25 0 0 0
38381.72 396921.68 1.24 0 0 0
38891.77 396871.84 1.03 0 0 0
38461.63 397427.78 1.03 0 0 0
38971.28 397377.93 1.05 0 0 0
38423.96 397938.75 1.02 0 0 0
38933.85 397888.56 1.22 0 0 0
38467.91 398449.33 1.15 0 0 0
38977.87 398398.79 1.17 0 0 0
38362.34 398950.76 0.80 0 0 0
38871.92 398900.42 0.81 0 0 0
38435.70 399467.99 0.89 0 0 0
38944.55 399407.74 0.92 0 0 0
38431.18 399979.99 1.17 0 0 0
38939.67 399919.81 0.84 0 0 0
38450.80 400491.68 1.05 0 0 0
38959.75 400431.84 1.07 0 0 0
38512.91 400999.93 1.00 0 0 0
38999.75 401158.82 1.32 0 0 0
38430.73 401505.39 0.62 0 0 0
38883.91 401743.89 4.49 0 0 0
38459.79 402032.30 0.43 0 0 0
38939.62 402253.64 -1.18 0 0 0
39473.93 384000.20 3.82 0 0 0
39075.78 384499.69 4.83 0 0 0
39985.96 384000.00 1.99 0 0 0
39589.96 384498.91 8.13 0 0 0
39323.96 384947.86 3.14 0 0 0
39995.42 384811.89 3.86 0 0 0
39598.50 385369.68 99.01 0 0 0
39417.95 385839.56 3.15 0 0 0
39999.96 385675.32 11.61 0 0 0
39443.64 386350.93 5.16 0 0 0
39927.44 386182.94 3.10 0 0 0
39411.53 386861.96 2.71 0 0 0
39983.76 386691.99 5.10 0 0 0
39498.82 387366.53 11.46 0 0 0
39988.41 387203.96 1.26 0 0 0
39442.90 387875.79 20.15 0 0 0
39928.16 387712.79 3.04 0 0 0
39371.98 388478.37 6.16 0 0 0
39818.74 388222.98 1.49 0 0 0
39487.55 388977.55 1.37 0 0 0
39931.80 388722.59 0.68 0 0 0
39400.73 389482.42 2.41 0 0 0
39929.71 389235.90 1.93 0 0 0
39463.95 389990.88 1.49 0 0 0
39914.65 389747.84 1.01 0 0 0
39519.36 390499.95 1.55 0 0 0
39970.37 390256.98 1.23 0 0 0
39363.82 390987.86 1.02 0 0 0
39883.98 390859.94 3.63 0 0 0
39364.60 391499.95 1.16 0 0 0
39860.66 391371.66 1.34 0 0 0
39491.56 391995.97 1.32 0 0 0
39987.71 391867.81 1.29 0 0 0
39248.80 392446.76 0.37 0 0 0
39847.68 392363.88 1.12 0 0 0
39498.61 392893.85 1.00 0 0 0
39999.94 392998.72 1.42 0 0 0
39219.98 393403.99 1.50 0 0 0
39731.17 393434.68 1.34 0 0 0
39398.65 393883.98 -0.72 0 0 0
39976.81 393883.84 14.63 0 0 0
39320.67 395000.42 -0.73 0 0 0
39834.08 395000.77 -0.67 0 0 0
39949.43 395499.80 -0.72 0 0 0
39405.13 395677.87 -0.71 0 0 0
39807.61 395994.93 1.06 0 0 0
39243.75 394406.41 -0.63 0 0 0
39752.46 394343.93 0.80 0 0 0
39499.93 396447.79 1.38 0 0 0
39397.87 396949.59 1.07 0 0 0
39999.99 396558.17 1.17 0 0 0
39497.51 397451.83 1.11 0 0 0
39883.98 397110.56 1.05 0 0 0
39435.95 397989.30 1.69 0 0 0
39979.84 397623.93 1.35 0 0 0
39479.80 398499.88 0.70 0 0 0
39927.96 398133.32 0.57 0 0 0
39971.45 398643.78 1.10 0 0 0
39589.97 398999.91 1.22 0 0 0
39449.51 399492.83 1.07 0 0 0
39999.77 399306.85 0.90 0 0 0
39520.19 399999.93 0.89 0 0 0
39999.50 399818.99 0.92 0 0 0
39630.99 400499.81 0.92 0 0 0
39483.50 400990.39 1.02 0 0 0
39995.49 400859.71 0.63 0 0 0
39386.91 401493.95 3.73 0 0 0
39880.74 401358.69 2.09 0 0 0
39496.39 401994.89 -1.21 0 0 0
39991.77 401864.21 -0.33 0 0 0
40498.06 384000.85 -0.11 0 0 0
40999.96 384102.74 0.98 0 0 0
40613.50 384499.87 0.88 0 0 0
40474.46 384992.86 3.38 0 0 0
40999.86 384835.96 -0.40 0 0 0
40546.70 385499.99 1.35 0 0 0
40402.62 385991.71 2.86 0 0 0
40999.87 385738.44 1.03 0 0 0
40459.86 386499.93 29.42 0 0 0
40900.99 386240.90 0.99 0 0 0
40903.98 386753.96 1.80 0 0 0
40465.97 387019.26 1.18 0 0 0
40642.56 387499.90 1.37 0 0 0
40371.84 387968.43 1.37 0 0 0
40999.98 387866.61 0.69 0 0 0
40382.94 388480.40 1.28 0 0 0
40881.82 388364.93 1.03 0 0 0
40380.30 388992.48 1.11 0 0 0
40879.33 388876.95 1.28 0 0 0
40449.11 389499.96 1.26 0 0 0
40947.89 389384.37 6.96 0 0 0
40559.82 389999.96 1.50 0 0 0
40423.93 390494.97 1.61 0 0 0
40995.96 390268.83 1.34 0 0 0
40530.16 390995.85 1.11 0 0 0
40995.94 390780.83 1.56 0 0 0
40361.44 391479.80 1.49 0 0 0
40883.93 391366.52 0.73 0 0 0
40488.61 391975.86 1.11 0 0 0
40989.98 391867.77 0.74 0 0 0
40347.98 392472.93 1.39 0 0 0
40847.76 392359.87 2.95 0 0 0
40658.69 392879.97 1.86 0 0 0
40371.98 393351.37 1.00 0 0 0
40883.94 393340.22 -0.71 0 0 0
40487.89 393850.52 1.05 0 0 0
40999.94 393839.31 1.05 0 0 0
40243.80 394487.99 1.17 0 0 0
40722.93 394305.52 0.42 0 0 0
40354.99 394987.87 1.11 0 0 0
40966.46 394755.92 0.57 0 0 0
40466.88 395487.65 0.61 0 0 0
40928.91 395266.90 1.04 0 0 0
40320.30 395979.75 -0.74 0 0 0
40883.36 395785.92 0.45 0 0 0
40763.16 396283.72 -0.67 0 0 0
40487.31 396715.66 0.84 0 0 0
40981.89 396849.22 -0.72 0 0 0
40384.67 397217.64 1.21 0 0 0
40879.01 397350.98 1.14 0 0 0
40482.81 397720.17 1.31 0 0 0
40987.74 397851.76 -0.25 0 0 0
40430.94 398229.79 0.83 0 0 0
40925.88 398360.94 0.93 0 0 0
40474.41 398739.98 0.86 0 0 0
40969.37 398871.61 0.78 0 0 0
40499.89 399416.81 0.75 0 0 0
40499.61 399928.98 0.80 0 0 0
40999.80 399527.84 0.74 0 0 0
40110.46 400318.96 2.41 0 0 0
40999.91 400039.97 0.85 0 0 0
40610.87 400428.98 0.58 0 0 0
40499.95 400947.68 0.74 0 0 0
40995.60 400766.99 1.23 0 0 0
40385.72 401446.86 0.71 0 0 0
40883.60 401286.89 1.33 0 0 0
40496.91 401947.89 -0.39 0 0 0
40989.69 401787.77 5.86 0 0 0
32713.77 401249.64 8.55 0 0 0
41499.85 384213.65 0.91 0 0 0
41965.87 384000.01 0.92 0 0 0
41499.98 384725.66 0.92 0 0 0
41967.80 384511.99 5.85 0 0 0
41339.96 385218.80 1.10 0 0 0
41883.96 385064.73 1.18 0 0 0
41499.82 385848.93 0.96 0 0 0
41998.50 385563.99 0.78 0 0 0
41082.40 387233.87 8.30 0 0 0
41538.46 387000.50 1.09 0 0 0
41999.84 387222.93 2.28 0 0 0
41499.96 387530.52 1.16 0 0 0
41969.65 387734.62 1.17 0 0 0
41401.08 386351.48 1.57 0 0 0
41947.80 386096.93 0.68 0 0 0
41859.73 386601.78 8.35 0 0 0
41480.67 388042.92 1.15 0 0 0
41711.82 388499.77 4.52 0 0 0
41391.16 388899.10 1.22 0 0 0
41959.90 388947.98 1.12 0 0 0
41477.79 389403.84 1.25 0 0 0
41986.79 389459.87 1.22 0 0 0
41351.92 389900.39 1.40 0 0 0
41860.95 389956.92 1.42 0 0 0
41495.98 390391.90 1.42 0 0 0
41999.69 390483.92 1.38 0 0 0
41493.17 390903.99 1.24 0 0 0
41997.88 390995.98 1.21 0 0 0
41394.73 391406.84 1.38 0 0 0
41898.54 391498.93 1.30 0 0 0
41499.91 391914.29 0.94 0 0 0
41357.67 392406.89 1.27 0 0 0
41999.81 392025.50 0.76 0 0 0
41170.71 392883.54 1.55 0 0 0
41755.73 392728.99 1.80 0 0 0
41457.61 393307.88 1.07 0 0 0
41998.99 393179.59 1.08 0 0 0
41499.98 393950.27 1.03 0 0 0
41939.95 393688.29 -0.26 0 0 0
41374.80 394446.94 0.45 0 0 0
41945.86 394201.99 0.60 0 0 0
41481.04 394947.99 0.87 0 0 0
41936.49 394713.97 0.64 0 0 0
41403.97 395458.74 1.00 0 0 0
41911.91 395225.80 0.59 0 0 0
41361.85 395969.59 0.61 0 0 0
41835.72 395733.97 0.45 0 0 0
41338.42 396481.17 -0.65 0 0 0
41882.80 396243.93 0.67 0 0 0
41771.81 396754.88 -0.66 0 0 0
41371.92 397181.56 1.03 0 0 0
41862.65 397328.68 -0.72 0 0 0
41471.84 397683.94 0.85 0 0 0
41947.99 397872.61 1.19 0 0 0
41464.95 399000.37 0.06 0 0 0
41976.96 399000.67 0.72 0 0 0
41577.98 399499.79 0.75 0 0 0
41688.38 399999.83 0.59 0 0 0
41409.52 398192.34 0.72 0 0 0
41883.99 398385.92 1.09 0 0 0
41363.75 400400.38 0.67 0 0 0
41876.68 400475.96 0.45 0 0 0
41490.99 400896.43 0.27 0 0 0
41997.66 400973.90 0.33 0 0 0
41371.92 401441.21 0.77 0 0 0
41883.66 401473.93 0.92 0 0 0
41478.71 401941.95 1.59 0 0 0
41989.81 401975.87 0.61 0 0 0
41249.54 402400.34 -1.33 0 0 0
41755.68 402480.91 -1.40 0 0 0
42477.97 384000.63 6.32 0 0 0
42989.95 384001.98 0.75 0 0 0
42591.93 384499.80 3.58 0 0 0
42387.72 384969.56 1.30 0 0 0
42995.70 384814.78 4.63 0 0 0
42755.54 385325.91 1.29 0 0 0
42473.95 385753.98 2.63 0 0 0
42992.74 385779.66 1.12 0 0 0
42431.83 386264.62 8.17 0 0 0
42943.92 386289.44 1.42 0 0 0
42339.74 386779.90 1.83 0 0 0
42851.59 386793.76 0.89 0 0 0
42499.94 387332.76 1.01 0 0 0
42999.89 387443.89 0.80 0 0 0
42469.93 387843.92 1.09 0 0 0
42969.70 387955.22 1.14 0 0 0
42159.90 388251.89 1.25 0 0 0
42659.89 388362.91 1.13 0 0 0
42459.21 388833.98 1.60 0 0 0
42995.84 388749.78 1.10 0 0 0
42486.09 389345.74 1.23 0 0 0
42991.55 389261.82 0.66 0 0 0
42359.97 389842.33 1.29 0 0 0
42865.02 389757.95 1.19 0 0 0
42490.58 390337.83 4.47 0 0 0
42995.60 390253.44 1.11 0 0 0
42488.90 390849.85 1.53 0 0 0
42994.94 390765.64 1.34 0 0 0
42389.94 391352.88 0.93 0 0 0
42895.91 391267.98 1.09 0 0 0
42483.27 391856.35 0.88 0 0 0
42988.51 391771.98 1.00 0 0 0
42211.52 392491.70 1.22 0 0 0
42755.88 392289.87 -0.93 0 0 0
42499.99 392914.86 0.90 0 0 0
42985.51 392747.83 0.95 0 0 0
42447.77 393426.96 -1.34 0 0 0
42931.17 393256.98 0.99 0 0 0
42387.85 393936.59 1.13 0 0 0
42870.78 393765.63 0.68 0 0 0
42393.90 394449.85 0.79 0 0 0
42876.57 394277.78 0.53 0 0 0
42371.69 394983.99 0.22 0 0 0
42845.61 394788.85 0.84 0 0 0
42333.68 396000.74 0.23 0 0 0
42448.22 396499.81 -0.59 0 0 0
42845.81 396000.18 0.23 0 0 0
42960.96 396499.98 -0.55 0 0 0
42235.68 396971.63 0.56 0 0 0
42747.74 396965.94 0.65 0 0 0
42411.96 395494.75 0.78 0 0 0
42885.48 395299.64 0.81 0 0 0
42370.09 397467.82 -0.65 0 0 0
42882.99 397459.99 3.42 0 0 0
42449.89 397973.81 0.95 0 0 0
42974.94 397963.92 0.65 0 0 0
42387.08 398481.98 0.82 0 0 0
42899.56 398470.59 0.87 0 0 0
42488.89 398983.94 0.70 0 0 0
42090.46 399499.97 0.78 0 0 0
42999.99 399016.78 0.70 0 0 0
42603.76 399482.93 0.21 0 0 0
42201.85 399999.71 0.83 0 0 0
42726.68 399979.98 0.51 0 0 0
42471.77 400434.82 0.46 0 0 0
42995.61 400415.88 0.54 0 0 0
42718.56 400883.61 0.62 0 0 0
42402.86 401287.68 0.14 0 0 0
42911.70 401357.85 0.80 0 0 0
42469.55 401795.60 0.84 0 0 0
42977.79 401865.76 0.58 0 0 0
42371.94 402316.79 7.20 0 0 0
43499.94 384045.27 29.01 0 0 0
43999.96 384151.81 0.80 0 0 0
43435.57 384552.68 0.52 0 0 0
43936.40 384659.94 1.08 0 0 0
43435.91 385076.90 1.15 0 0 0
43939.69 385171.96 1.13 0 0 0
43467.91 385588.92 1.15 0 0 0
43971.93 385683.54 1.12 0 0 0
43419.13 386098.62 1.30 0 0 0
43922.85 386193.61 1.18 0 0 0
43339.98 386614.17 1.05 0 0 0
43845.65 386699.87 1.08 0 0 0
43441.87 387115.95 1.07 0 0 0
43946.72 387201.82 1.12 0 0 0
43477.86 387627.57 0.99 0 0 0
43982.85 387712.62 1.20 0 0 0
43435.71 388167.76 1.33 0 0 0
43944.84 388223.97 1.18 0 0 0
43499.98 388839.98 1.24 0 0 0
43999.94 388950.76 1.52 0 0 0
43497.83 389351.98 1.17 0 0 0
43997.98 389462.85 1.53 0 0 0
43369.40 389847.75 1.11 0 0 0
43869.96 389958.70 1.27 0 0 0
43499.94 390343.03 1.22 0 0 0
43999.95 390453.98 2.91 0 0 0
43498.98 390855.96 5.48 0 0 0
43995.97 390979.21 0.84 0 0 0
43399.82 391358.83 1.17 0 0 0
43896.85 391481.99 3.08 0 0 0
43491.99 391865.40 0.78 0 0 0
43989.68 391985.79 1.33 0 0 0
43289.66 392335.74 0.49 0 0 0
43787.49 392456.27 1.42 0 0 0
43483.36 392868.89 1.20 0 0 0
43993.95 392924.77 8.18 0 0 0
43428.71 393378.76 0.52 0 0 0
43937.88 393433.89 0.75 0 0 0
43368.38 393887.94 -0.24 0 0 0
43877.96 393942.55 0.47 0 0 0
43371.98 394407.91 0.81 0 0 0
43881.95 394454.80 0.62 0 0 0
43339.84 394922.66 1.12 0 0 0
43850.51 394965.85 0.13 0 0 0
43371.90 395459.62 0.94 0 0 0
43883.83 395476.98 0.94 0 0 0
43357.37 395971.51 -0.41 0 0 0
43869.20 395988.89 0.31 0 0 0
43486.85 396467.06 -0.69 0 0 0
43258.23 396925.39 3.55 0 0 0
43883.63 396952.58 -0.55 0 0 0
43393.80 397419.64 0.97 0 0 0
43903.88 397464.69 1.07 0 0 0
43485.61 397923.81 0.70 0 0 0
43995.84 397968.57 1.04 0 0 0
43410.20 398430.98 0.02 0 0 0
43920.83 398475.79 0.51 0 0 0
43515.72 398931.96 9.20 0 0 0
43169.80 399499.85 0.63 0 0 0
43999.98 399098.03 0.73 0 0 0
43681.89 399499.96 0.64 0 0 0
43297.86 399995.61 0.24 0 0 0
43810.58 399995.97 0.78 0 0 0
43530.61 400451.96 -0.64 0 0 0
43230.71 400870.76 0.74 0 0 0
43999.96 400656.94 0.88 0 0 0
43497.56 401307.92 -0.27 0 0 0
43990.50 401168.88 0.73 0 0 0
43487.87 401819.92 0.40 0 0 0
43980.85 401680.91 0.37 0 0 0
43395.33 402325.33 -1.42 0 0 0
43887.91 402184.47 0.74 0 0 0
43755.67 402689.13 -1.47 0 0 0
44489.20 384000.48 1.14 0 0 0
44999.99 384037.15 1.32 0 0 0
44602.47 384499.97 0.67 0 0 0
44412.64 384975.65 1.01 0 0 0
44943.43 384881.99 3.00 0 0 0
44444.80 385486.97 1.15 0 0 0
44949.06 385393.96 1.18 0 0 0
44395.79 385996.80 2.72 0 0 0
44899.53 385903.89 1.40 0 0 0
44490.83 386499.97 1.09 0 0 0
44995.95 386406.93 1.02 0 0 0
44618.87 386995.85 1.09 0 0 0
44436.76 387474.74 1.02 0 0 0
44999.53 387338.46 1.49 0 0 0
44415.55 387986.63 0.91 0 0 0
44906.96 387842.47 1.34 0 0 0
44377.79 388497.96 0.98 0 0 0
44870.46 388353.17 0.24 0 0 0
44748.71 388850.92 1.33 0 0 0
44478.63 389286.18 -0.15 0 0 0
44993.76 389299.93 26.36 0 0 0
44371.75 389812.83 3.66 0 0 0
44883.98 389799.94 0.61 0 0 0
44491.72 390310.58 0.75 0 0 0
44999.88 390373.32 0.41 0 0 0
44483.80 390822.91 0.49 0 0 0
44991.95 390885.72 0.51 0 0 0
44384.73 391325.76 0.39 0 0 0
44883.86 391439.84 0.63 0 0 0
44477.80 391829.92 1.21 0 0 0
44977.38 391943.53 1.42 0 0 0
44367.93 392330.93 1.16 0 0 0
44867.80 392443.76 1.22 0 0 0
44499.17 392825.88 1.30 0 0 0
44998.58 392938.90 1.28 0 0 0
44440.98 393334.91 0.85 0 0 0
44939.92 393450.04 1.37 0 0 0
44380.95 393843.79 0.87 0 0 0
44879.84 393958.92 1.01 0 0 0
44384.57 394355.85 0.63 0 0 0
44883.79 394470.99 -0.03 0 0 0
44353.43 394866.98 1.18 0 0 0
44851.80 394984.71 0.79 0 0 0
44438.62 395371.87 0.56 0 0 0
44937.56 395489.78 0.56 0 0 0
44369.93 395879.74 0.42 0 0 0
44867.95 395998.87 -0.29 0 0 0
44073.69 396474.39 -0.66 0 0 0
44422.76 396850.24 -0.73 0 0 0
44899.74 396663.71 -0.62 0 0 0
44405.80 397362.49 0.83 0 0 0
44882.90 397175.84 0.72 0 0 0
44499.89 397865.90 0.90 0 0 0
44976.97 397679.22 0.80 0 0 0
44499.86 399208.79 0.63 0 0 0
44967.74 399000.29 0.81 0 0 0
44179.73 399619.79 0.74 0 0 0
44691.77 399683.79 0.58 0 0 0
44308.82 400115.79 0.77 0 0 0
44978.97 400107.88 0.62 0 0 0
44647.73 400499.92 0.72 0 0 0
44466.72 400978.87 0.72 0 0 0
44995.82 400875.53 0.63 0 0 0
44422.89 398372.24 0.60 0 0 0
44899.90 398185.58 7.48 0 0 0
44370.94 402012.96 0.89 0 0 0
44882.92 402000.70 0.71 0 0 0
44529.84 402499.82 1.39 0 0 0
44999.80 402703.42 5.62 0 0 0
44456.93 401490.78 0.40 0 0 0
44958.69 401386.63 0.54 0 0 0
45499.87 384148.65 0.77 0 0 0
45989.98 384000.05 1.09 0 0 0
45873.76 384498.92 3.82 0 0 0
45444.99 384778.85 1.20 0 0 0
45979.89 384999.97 0.80 0 0 0
45450.81 385290.85 0.68 0 0 0
45401.32 385800.64 0.68 0 0 0
45883.99 385563.95 0.23 0 0 0
45497.80 386303.97 0.23 0 0 0
45973.99 386067.98 0.54 0 0 0
45209.60 386871.74 23.94 0 0 0
45738.88 386755.72 0.66 0 0 0
45498.93 387452.49 -0.09 0 0 0
45971.66 387211.98 0.77 0 0 0
45403.96 387965.89 1.30 0 0 0
45933.92 387723.26 1.17 0 0 0
45367.70 388476.87 1.35 0 0 0
45844.71 388227.43 1.84 0 0 0
45399.43 388987.90 1.05 0 0 0
45847.94 388739.54 3.29 0 0 0
45466.30 389495.88 1.58 0 0 0
45936.50 389243.86 6.02 0 0 0
45355.79 389998.83 1.51 0 0 0
45907.83 389755.14 0.43 0 0 0
45490.91 391000.61 0.69 0 0 0
45999.96 391056.11 1.04 0 0 0
45603.98 391499.90 12.61 0 0 0
45486.43 391998.83 1.20 0 0 0
45979.74 391847.95 1.53 0 0 0
45376.93 392499.63 1.03 0 0 0
45865.87 392347.21 1.28 0 0 0
45753.30 392846.86 0.88 0 0 0
45755.68 390318.72 0.31 0 0 0
45415.74 393235.98 1.05 0 0 0
45976.37 393307.99 0.93 0 0 0
45355.95 393748.59 1.07 0 0 0
45864.53 393807.88 0.84 0 0 0
45485.61 394243.96 0.22 0 0 0
45995.60 394302.96 -0.01 0 0 0
45323.98 394732.78 0.60 0 0 0
45833.52 394788.85 -0.35 0 0 0
45363.91 397000.19 6.55 0 0 0
45475.32 397499.97 1.42 0 0 0
45868.79 397110.38 -0.68 0 0 0
45975.49 397611.55 2.36 0 0 0
45586.71 397999.73 0.84 0 0 0
45385.35 395241.51 0.36 0 0 0
45883.76 395358.98 0.53 0 0 0
45375.82 395754.67 -0.20 0 0 0
45874.70 395870.94 0.28 0 0 0
45307.69 398495.93 0.72 0 0 0
45995.98 398307.88 0.88 0 0 0
45479.78 398978.77 0.81 0 0 0
45966.70 398819.47 0.76 0 0 0
45237.02 399435.74 7.11 0 0 0
45755.89 399409.98 0.84 0 0 0
45498.76 399875.83 0.78 0 0 0
45999.99 399981.36 3.65 0 0 0
45306.67 396262.85 4.80 0 0 0
45980.86 396371.86 0.54 0 0 0
45370.96 403056.50 0.30 0 0 0
45879.94 403000.22 5.62 0 0 0
45371.98 400436.56 0.96 0 0 0
45882.78 400479.81 0.87 0 0 0
45499.96 400965.73 0.95 0 0 0
45462.92 401476.80 0.92 0 0 0
45999.73 401076.97 0.74 0 0 0
45394.74 401984.97 0.76 0 0 0
45963.56 401587.97 0.93 0 0 0
45466.23 402491.97 0.86 0 0 0
45894.67 402095.83 0.90 0 0 0
46499.94 384046.19 0.91 0 0 0
46999.78 384157.23 1.19 0 0 0
46371.97 384617.13 0.81 0 0 0
46882.96 384655.89 1.06 0 0 0
46481.91 386000.30 1.16 0 0 0
46275.79 386481.71 0.95 0 0 0
46993.91 386000.55 0.41 0 0 0
46787.98 386469.84 0.61 0 0 0
46487.43 386947.94 0.51 0 0 0
46999.94 386935.99 0.26 0 0 0
46243.74 390141.94 0.66 0 0 0
46735.64 390000.69 26.08 0 0 0
46611.89 390497.92 0.60 0 0 0
46508.93 390999.71 0.58 0 0 0
46999.97 390832.48 -0.58 0 0 0
46386.85 389000.21 0.33 0 0 0
46498.77 389499.87 1.01 0 0 0
46898.99 389000.61 -0.82 0 0 0
46488.82 385115.87 1.00 0 0 0
46999.69 385154.54 0.84 0 0 0
46419.82 387459.75 1.09 0 0 0
46931.85 387443.49 0.44 0 0 0
46371.89 387988.69 0.60 0 0 0
46882.83 387953.73 0.31 0 0 0
46297.97 388495.36 3.96 0 0 0
46808.83 388460.65 0.04 0 0 0
46338.65 391482.78 -0.28 0 0 0
46883.96 391348.32 0.27 0 0 0
46475.36 391976.98 1.35 0 0 0
46977.59 391851.72 0.20 0 0 0
46385.67 393000.11 0.93 0 0 0
46897.74 393000.40 0.63 0 0 0
46501.87 393498.81 -0.93 0 0 0
46999.93 393617.99 -0.38 0 0 0
46624.93 393995.91 4.55 0 0 0
46361.57 392476.87 1.61 0 0 0
46857.78 392349.64 1.42 0 0 0
46473.96 394485.77 0.67 0 0 0
46978.95 394365.78 0.24 0 0 0
46307.88 394981.63 0.61 0 0 0
46819.36 394863.83 0.53 0 0 0
46379.21 395488.74 0.31 0 0 0
46883.16 395371.89 0.29 0 0 0
46407.96 395999.95 0.47 0 0 0
46906.74 395883.57 0.21 0 0 0
46393.09 397308.03 -0.70 0 0 0
46881.53 397465.44 19.42 0 0 0
46435.99 397835.90 0.76 0 0 0
46928.79 397974.99 0.58 0 0 0
46531.45 396496.91 -0.12 0 0 0
46995.92 396717.33 -0.69 0 0 0
46499.87 398398.75 0.78 0 0 0
46471.05 398909.95 0.17 0 0 0
46999.93 398509.69 0.53 0 0 0
46267.31 399379.69 0.88 0 0 0
46970.90 399020.99 0.92 0 0 0
46767.26 399490.82 0.86 0 0 0
46509.86 399933.95 0.89 0 0 0
46384.89 403088.08 1.18 0 0 0
46499.90 401186.81 0.95 0 0 0
46976.73 401000.13 0.93 0 0 0
46463.84 401697.97 0.89 0 0 0
46940.90 401510.92 0.96 0 0 0
46392.89 400432.66 0.92 0 0 0
46999.95 400082.91 0.98 0 0 0
46394.83 402205.35 0.99 0 0 0
46871.58 402018.50 1.12 0 0 0
46683.94 402627.92 3.26 0 0 0
47487.54 384000.43 0.80 0 0 0
47999.99 384000.16 1.11 0 0 0
47600.22 384499.90 0.66 0 0 0
47487.62 384999.37 0.65 0 0 0
47979.68 384843.72 0.69 0 0 0
47499.99 386078.99 -0.84 0 0 0
47999.91 386189.59 -0.41 0 0 0
47359.95 386571.77 5.69 0 0 0
47859.83 386682.42 0.01 0 0 0
47495.62 387065.93 -0.85 0 0 0
47995.69 387176.94 -0.43 0 0 0
47427.59 387573.57 -0.74 0 0 0
47927.85 387684.54 -0.64 0 0 0
47377.90 385499.69 -0.08 0 0 0
47866.74 385343.96 -0.58 0 0 0
47243.91 390056.93 -0.32 0 0 0
47752.86 390000.64 -0.36 0 0 0
47527.89 390482.97 -0.74 0 0 0
47485.98 390993.91 -0.80 0 0 0
47995.96 390690.68 -0.95 0 0 0
47371.90 388105.35 -1.08 0 0 0
47875.96 388195.52 -0.83 0 0 0
47297.89 388612.39 -1.22 0 0 0
47801.86 388703.95 -0.93 0 0 0
47375.47 391493.97 -1.21 0 0 0
47947.96 391215.22 0.37 0 0 0
47467.99 391998.98 1.34 0 0 0
47901.49 391725.37 1.20 0 0 0
47397.96 389115.95 -0.73 0 0 0
47012.75 389499.97 -0.58 0 0 0
47991.52 389179.94 -0.94 0 0 0
47347.89 392497.89 1.01 0 0 0
47919.77 392239.99 0.51 0 0 0
47467.71 392995.78 1.36 0 0 0
47923.85 392751.99 1.38 0 0 0
47557.63 393499.84 1.06 0 0 0
47363.66 393978.88 0.72 0 0 0
47995.85 393764.85 1.24 0 0 0
47307.79 395017.39 0.04 0 0 0
47479.71 395499.73 0.34 0 0 0
47819.58 395000.34 0.73 0 0 0
47991.91 395482.88 0.71 0 0 0
47589.69 395999.92 1.54 0 0 0
47478.96 394477.83 0.99 0 0 0
47949.58 394274.91 3.70 0 0 0
47457.31 396494.80 -0.45 0 0 0
47999.93 396306.28 -0.63 0 0 0
47987.03 396818.18 -0.61 0 0 0
47435.96 398045.94 1.74 0 0 0
47946.44 398000.00 0.66 0 0 0
47672.79 398499.99 0.73 0 0 0
47480.94 398974.94 0.86 0 0 0
47995.73 398897.95 0.93 0 0 0
47277.29 399444.80 0.72 0 0 0
47787.75 399384.95 0.73 0 0 0
47483.61 399913.65 0.78 0 0 0
47997.89 399851.91 1.17 0 0 0
47499.80 397414.79 -0.68 0 0 0
47371.32 400435.44 1.02 0 0 0
47876.36 400349.35 0.85 0 0 0
47496.84 400931.87 0.76 0 0 0
47383.84 402000.32 1.04 0 0 0
47169.88 402465.80 1.15 0 0 0
47883.86 402110.94 1.12 0 0 0
47164.68 402979.61 1.13 0 0 0
47669.82 402576.40 4.55 0 0 0
47929.43 403017.70 -1.18 0 0 0
47448.66 401441.63 0.90 0 0 0
47999.79 401027.91 0.54 0 0 0
47947.98 401555.91 1.16 0 0 0
48467.56 385000.39 -0.37 0 0 0
48354.89 385499.87 0.04 0 0 0
48979.98 385000.91 0.32 0 0 0
48482.36 385995.99 0.46 0 0 0
48866.99 385500.54 0.07 0 0 0
48996.54 385995.89 -0.34 0 0 0
48573.08 386499.98 0.41 0 0 0
48683.76 386999.97 -1.18 0 0 0
48499.98 384110.97 0.80 0 0 0
48999.87 384000.27 0.97 0 0 0
48835.84 384497.93 0.51 0 0 0
48427.86 387451.88 -0.71 0 0 0
48999.85 387402.80 -1.33 0 0 0
48359.78 387959.73 -1.51 0 0 0
48868.63 387897.89 -0.99 0 0 0
48307.66 388470.90 -0.57 0 0 0
48815.83 388407.40 -0.68 0 0 0
48493.99 388947.89 -0.31 0 0 0
48419.87 389460.84 -0.60 0 0 0
48999.94 389026.94 -0.68 0 0 0
48262.69 389948.71 -0.97 0 0 0
48926.68 389533.95 -1.34 0 0 0
48497.50 390403.92 -1.34 0 0 0
48859.98 390041.69 -1.31 0 0 0
48455.98 390915.57 -1.22 0 0 0
48994.02 390535.95 -1.02 0 0 0
48372.29 392000.29 -0.16 0 0 0
48484.93 392499.75 -0.92 0 0 0
48883.98 392018.33 -0.87 0 0 0
48372.47 392999.67 -0.58 0 0 0
48995.99 392531.50 -0.62 0 0 0
48414.63 391425.92 0.36 0 0 0
48951.34 391046.45 0.42 0 0 0
48479.18 393499.99 20.89 0 0 0
48882.72 393042.31 -0.43 0 0 0
48989.64 393543.57 1.36 0 0 0
48588.09 393999.97 1.14 0 0 0
48417.63 394482.91 1.33 0 0 0
48999.94 394304.32 1.25 0 0 0
48331.75 394987.92 1.02 0 0 0
48818.98 394800.83 1.14 0 0 0
48731.66 395307.94 1.37 0 0 0
48435.87 395738.90 -0.69 0 0 0
48499.98 396416.82 1.01 0 0 0
48979.86 396075.35 -0.72 0 0 0
48487.94 396928.70 1.05 0 0 0
48979.96 396595.23 0.95 0 0 0
48004.96 397329.95 0.90 0 0 0
48499.98 397460.95 0.88 0 0 0
48967.93 397107.74 0.72 0 0 0
48457.96 397971.31 0.68 0 0 0
48986.89 397619.79 3.38 0 0 0
48497.86 399000.86 1.63 0 0 0
48365.78 399495.70 0.90 0 0 0
48999.91 399101.69 0.88 0 0 0
48491.96 399991.97 0.85 0 0 0
48867.99 399596.52 0.99 0 0 0
48215.67 398435.59 0.88 0 0 0
48944.85 398130.33 0.63 0 0 0
48383.90 402000.56 5.05 0 0 0
48895.96 402000.13 0.94 0 0 0
48581.85 402472.92 3.24 0 0 0
48499.97 401137.44 0.99 0 0 0
48993.77 401000.44 1.23 0 0 0
48368.79 400489.89 0.96 0 0 0
48993.98 400093.37 1.34 0 0 0
49499.93 384110.86 0.75 0 0 0
49999.95 384000.39 1.42 0 0 0
49835.83 384497.42 0.83 0 0 0
49335.82 384605.83 27.24 0 0 0
49675.77 384987.88 1.45 0 0 0
49368.96 385397.86 -0.14 0 0 0
49883.33 385455.97 1.05 0 0 0
49498.61 385893.29 0.10 0 0 0
49999.73 385998.28 -0.68 0 0 0
49316.62 387000.25 -0.97 0 0 0
49828.64 387000.83 0.07 0 0 0
49525.16 387467.95 -0.40 0 0 0
49371.97 387992.93 -1.46 0 0 0
49995.79 387669.80 -1.31 0 0 0
49086.20 386499.99 -0.34 0 0 0
49588.29 386397.54 -0.06 0 0 0
49443.25 388499.98 -1.25 0 0 0
49851.99 388171.34 -1.36 0 0 0
49939.01 388675.95 -1.28 0 0 0
49411.89 394000.14 1.21 0 0 0
49923.92 394000.47 1.32 0 0 0
49523.88 394499.93 1.24 0 0 0
49304.97 394962.78 1.25 0 0 0
49999.87 394688.66 1.20 0 0 0
49395.82 392000.12 -0.20 0 0 0
49907.97 392000.71 -0.05 0 0 0
49507.63 392499.79 -0.79 0 0 0
49392.91 392998.86 0.96 0 0 0
49999.93 392640.89 0.18 0 0 0
49218.32 395467.57 1.38 0 0 0
49755.97 395206.55 0.74 0 0 0
49467.93 395914.59 7.25 0 0 0
49930.37 395687.93 5.04 0 0 0
49465.09 396426.79 2.04 0 0 0
49925.32 396199.91 -1.56 0 0 0
49451.91 396938.76 0.75 0 0 0
49911.79 396711.90 2.13 0 0 0
49440.42 398000.46 0.93 0 0 0
49299.42 398499.81 0.59 0 0 0
49952.85 398000.72 1.02 0 0 0
49811.78 398492.95 0.99 0 0 0
49497.98 398971.84 0.97 0 0 0
49470.63 397450.89 1.11 0 0 0
49929.91 397223.92 0.66 0 0 0
49363.59 399465.95 1.03 0 0 0
49999.97 399073.62 0.96 0 0 0
49490.69 399961.95 0.92 0 0 0
49865.53 399567.73 0.93 0 0 0
49305.73 400499.71 0.96 0 0 0
49991.87 400067.89 -0.56 0 0 0
49755.93 400743.84 0.63 0 0 0
49369.67 402194.90 0.30 0 0 0
49475.96 401172.78 0.74 0 0 0
49996.97 401195.90 0.52 0 0 0
49044.49 401509.95 1.00 0 0 0
49710.77 401627.96 0.72 0 0 0
49461.81 391000.84 0.04 0 0 0
49243.95 391466.67 -0.03 0 0 0
49973.85 391001.02 -0.67 0 0 0
49755.95 391467.93 2.24 0 0 0
49499.95 389137.81 -1.41 0 0 0
49999.68 389249.72 -1.67 0 0 0
49426.73 389644.71 -1.32 0 0 0
49883.65 389875.76 -0.28 0 0 0
49359.84 390152.69 -1.33 0 0 0
49755.75 390477.82 -0.30 0 0 0
49883.92 393144.07 -0.11 0 0 0
49509.53 393497.42 1.71 0 0 0
50499.77 386108.72 1.19 0 0 0
50102.72 386499.86 -0.23 0 0 0
50999.96 386218.00 7.03 0 0 0
50499.37 386823.75 -1.10 0 0 0
50999.92 386931.77 0.36 0 0 0
50187.93 385000.34 1.28 0 0 0
50457.50 385435.80 1.85 0 0 0
50726.83 385000.12 0.80 0 0 0
50995.64 385435.96 1.32 0 0 0
50499.95 384110.71 2.88 0 0 0
50999.74 384221.86 0.99 0 0 0
50243.56 390239.93 -0.21 0 0 0
50696.49 390000.78 6.28 0 0 0
50810.61 390499.86 -1.14 0 0 0
50472.57 390884.44 -0.94 0 0 0
50988.88 390979.88 1.43 0 0 0
50371.46 388017.98 0.72 0 0 0
50883.60 388000.33 -0.69 0 0 0
50544.45 388499.90 -1.38 0 0 0
50999.97 388733.92 -0.61 0 0 0
50419.98 392002.68 0.37 0 0 0
50931.99 392000.92 1.68 0 0 0
50542.97 392499.89 3.14 0 0 0
50378.43 392985.74 -0.12 0 0 0
50995.85 392738.93 0.73 0 0 0
50448.68 389002.96 -1.11 0 0 0
50903.86 389237.60 -1.11 0 0 0
50371.94 389601.55 -0.98 0 0 0
50396.88 396000.13 -0.98 0 0 0
50908.92 396000.21 -0.06 0 0 0
50513.06 396499.61 -1.44 0 0 0
50389.26 396996.89 -0.12 0 0 0
50999.97 396658.56 -0.83 0 0 0
50485.39 397499.80 1.33 0 0 0
50876.36 397155.58 -1.60 0 0 0
50971.95 397659.59 1.08 0 0 0
50499.97 399184.68 1.30 0 0 0
50977.55 399000.00 0.69 0 0 0
50365.95 399678.95 0.95 0 0 0
50883.90 399523.70 3.83 0 0 0
50368.92 387318.89 -0.64 0 0 0
50867.73 387434.53 -1.59 0 0 0
50464.74 398011.82 -0.38 0 0 0
50951.80 398171.62 1.19 0 0 0
50323.98 398504.43 0.71 0 0 0
50491.95 400177.88 12.66 0 0 0
